-0.6061866 -1.254481 1.260103
0.04253674 -1.173622 1.408299
-0.385501 -1.215974 1.277988
-0.2442826 -1.280584 1.233639
-0.3114514 -1.238264 1.156619
-0.2746878 -1.17783 1.152164
-0.2987049 -1.214423 1.079503
-0.419378 -1.24195 0.890622
-0.559743 -1.188254 1.09702
-0.5273974 -1.488921 1.510078
0.002171278 -1.186481 1.542458
-0.5994819 -1.200834 1.278882
-0.4293351 -1.184192 1.207275
-0.1781196 -1.184036 1.264827
-0.8087909 -1.209293 0.974754
-0.8604129 -1.180799 0.7648141
-0.3632437 -1.201567 0.9461116
-0.2747838 -1.340996 1.260104
-0.3417371 -1.185262 1.239305
-0.1594547 -1.226297 1.520447
-0.09974991 -1.210814 1.038873
-0.04596309 -1.205703 1.054848
-0.6725708 -1.269901 1.601592
-0.5698315 -1.222483 1.625523
-0.4842381 -1.256987 1.562076
-0.6945497 -1.24362 1.607527
-0.5692971 -1.213675 1.601733
0.1631673 -1.185974 1.552345
-0.4973934 -1.236155 1.529862
-0.3198454 -1.209791 1.166107
0.04677254 -1.208573 1.137149
-0.5228676 -1.189025 1.641974
-0.4067205 -1.243278 1.578979
0.04628098 -1.195768 1.411955
0.03017621 -1.191857 1.344302
-0.3897371 -1.208405 1.183696
-0.6732466 -1.220309 1.119535
0.03452712 -1.198813 1.107835
-0.5357299 -1.236202 1.039419
-0.1645716 -1.475645 1.204675
-0.0129619 -1.205847 1.300136
-0.605475 -1.214405 1.282719
-0.08561178 -1.17728 1.122167
-0.1840468 -1.220427 0.9893145
-0.4516726 -1.237383 1.503861
-0.0702554 -1.218041 1.018773
-0.01563682 -1.192133 0.9935921
-0.379384 -1.199304 1.278812
-0.5839679 -1.232118 1.091141
-0.2219678 -1.193412 1.044052
-0.05792116 -1.049996 1.019518
-0.1351569 -1.422592 1.332428
-0.1749515 -1.12547 1.357552
0.020713 -1.115645 1.071151
-0.1619955 -1.242419 1.525888
-0.4370094 -1.210445 1.494325
-0.1995701 -1.226537 1.411518
-0.4231285 -1.283248 1.364766
-0.5975664 -1.230953 1.292429
-0.559631 -1.214938 1.135941
-0.1736954 -1.18683 1.171239
-0.6603363 -1.242923 0.9281524
-0.2446078 -1.209091 0.9590799
-0.5093308 -1.245246 1.546628
-0.6483545 -1.231387 1.517602
0.168066 -1.223635 1.562548
-0.5524637 -1.220321 1.482734
-0.2692928 -1.23029 1.137057
-0.05326708 -1.185777 0.9635801
-0.2214278 -1.216095 0.9482902
-0.3246391 -1.293368 0.8935276
-0.5236394 -1.326729 1.526079
-1.08341 -4.625135 1.29744
-0.7077576 -1.22001 1.294866
-0.6528478 -1.267402 0.8713253
-0.2536766 -1.206894 1.346336
-0.8478103 -1.228849 0.8047537
-0.2111612 -1.196445 1.226565
-0.5135214 -1.196139 1.046692
-0.351149 -1.224234 0.9088112
-0.232708 -1.211103 0.9118255
-0.1870892 -1.219777 0.9183556
-0.4009929 -1.235966 0.8327413
0.008316636 -1.153688 1.581703
-0.6061866 -1.254481 1.260103
0.04253674 -1.173622 1.408299
-0.385501 -1.215974 1.277988
-0.2442826 -1.280584 1.233639
-0.3114514 -1.238264 1.156619
-0.2746878 -1.17783 1.152164
-0.2987049 -1.214423 1.079503
-0.419378 -1.24195 0.890622
-0.559743 -1.188254 1.09702
-0.5273974 -1.488921 1.510078
0.002171278 -1.186481 1.542458
-0.5994819 -1.200834 1.278882
-0.4293351 -1.184192 1.207275
-0.1781196 -1.184036 1.264827
-0.8087909 -1.209293 0.974754
-0.8604129 -1.180799 0.7648141
-0.3632437 -1.201567 0.9461116
-0.2747838 -1.340996 1.260104
-0.4702358 -1.225249 1.418605
-0.7106836 -1.216966 1.294556
-0.429378 -1.220019 1.308474
-0.1623422 -1.194829 1.339635
-0.3291423 -1.209901 1.194346
-0.2724323 -1.1999 1.163253
-0.3597384 -1.187704 0.9791544
-0.09345844 -1.200231 0.9591727
-0.1069787 -1.221771 0.9287116
-0.8284497 -1.318587 0.7215221
-0.2951002 -1.656032 1.433756
-0.3465814 -1.196379 1.239331
-0.102514 -1.216921 1.03945
-0.5749671 -1.221301 1.60448
-0.3198454 -1.209791 1.166107
0.04565722 -1.210821 1.135606
-0.407725 -1.244004 1.578835
0.04479742 -1.214502 1.415998
0.02978152 -1.184904 1.34465
-0.3777677 -1.18038 1.185283
-0.6732466 -1.220309 1.119535
0.03452712 -1.198813 1.107835
-0.5357299 -1.236202 1.039419
-0.1822934 -1.554994 1.20884
-0.60906 -1.218769 1.283044
-0.08723029 -1.18217 1.121682
-0.1840468 -1.220427 0.9893145
-0.4559131 -1.244128 1.505641
-0.0702554 -1.218041 1.018773
-0.01659877 -1.195103 0.9929832
-0.3820531 -1.20349 1.279031
-0.5870389 -1.235763 1.090701
-0.2238587 -1.19713 1.043391
-0.05917063 -1.053003 1.018822
-0.1366491 -1.426853 1.332777
-0.1767662 -1.129327 1.358085
0.01980911 -1.118217 1.070755
-0.1633369 -1.245046 1.52666
-0.4396977 -1.214272 1.495338
-0.2010553 -1.229287 1.41204
-0.4256183 -1.287018 1.365257
-0.6006109 -1.23447 1.292678
-0.5625431 -1.218374 1.135666
-0.1752558 -1.189966 1.171094
-0.6635844 -1.246424 0.9271831
-0.2457183 -1.210251 0.9588564
-0.5116403 -1.248003 1.547519
-0.6515002 -1.234789 1.518595
0.1673708 -1.224765 1.56301
-0.555003 -1.223201 1.483505
-0.2708827 -1.232694 1.136913
-0.0542987 -1.187641 0.9631565
-0.2228477 -1.218248 0.9477646
-0.3263617 -1.29591 0.8928029
-0.5260801 -1.329877 1.526954
-1.068702 -4.565436 1.296627
-0.7106456 -1.222723 1.295093
-0.655609 -1.270253 0.8703833
-0.2550568 -1.208599 1.346623
-0.8486518 -1.228722 0.8048467
-0.2119947 -1.195933 1.226692
-0.3528996 -1.226495 0.9081277
-0.2339658 -1.21244 0.9114432
-0.1883762 -1.221643 0.917823
-0.4031211 -1.238919 0.8316104
0.007751375 -1.165321 1.586108
-0.6089178 -1.257496 1.260291
0.04214253 -1.181605 1.409902
-0.38635 -1.215413 1.278111
-0.2476514 -1.283849 1.233969
-0.3093868 -1.226946 1.157588
-0.2772823 -1.184079 1.151752
-0.5628493 -1.192018 1.096582
-0.5126764 -1.448075 1.501657
0.002171278 -1.186481 1.542458
-0.5994819 -1.200834 1.278882
-0.4293351 -1.184192 1.207275
-0.1781196 -1.184036 1.264827
-0.8087909 -1.209293 0.974754
-0.8604129 -1.180799 0.7648141
-0.3632437 -1.201567 0.9461116
-0.2747838 -1.340996 1.260104
-0.4702358 -1.225249 1.418605
-0.7106836 -1.216966 1.294556
-0.429378 -1.220019 1.308474
-0.1623422 -1.194829 1.339635
-1.126147 -1.253059 0.9191596
-0.3291423 -1.209901 1.194346
-0.2724323 -1.1999 1.163253
-1.050605 -1.228633 0.8496926
-0.3597384 -1.187704 0.9791544
-0.09345844 -1.200231 0.9591727
-0.1069787 -1.221771 0.9287116
-0.8284497 -1.318587 0.7215221
-0.2951002 -1.656032 1.433756
-0.2694417 -1.170207 1.35827
-0.2580143 -1.185594 1.344792
-0.6514544 -1.205922 1.08017
-0.2352581 -1.203424 1.22781
-0.1764334 -1.217231 1.139167
-0.9008553 -1.258346 0.785091
-0.2892731 -1.213383 1.025282
-0.2378994 -1.216027 0.9103652
-0.1449632 -1.376541 1.621009
-0.4586741 -1.204657 1.220032
-0.8067572 -1.358228 0.6536809
-0.3518647 -1.209014 1.239731
-0.102514 -1.216921 1.03945
0.0437409 -1.238271 1.420044
0.02914909 -1.193607 1.345091
-0.3780795 -1.180006 1.183657
-0.6871247 -1.241161 1.117757
0.03436285 -1.220177 1.104463
-0.5352268 -1.235085 1.040325
-0.616861 -1.230917 1.281668
-0.1840468 -1.220427 0.9893145
-0.0702554 -1.218041 1.018773
-0.01793554 -1.201875 0.9907483
-0.3838081 -1.207054 1.279338
-0.5917841 -1.242808 1.089907
-0.2250823 -1.200473 1.042923
-0.06000793 -1.056352 1.018111
-0.1377634 -1.432146 1.333275
-0.1780029 -1.133132 1.358668
0.01898943 -1.124514 1.06968
-0.1657532 -1.254821 1.529321
-0.4437118 -1.222048 1.497344
-0.2038596 -1.238988 1.413674
-0.4295517 -1.295348 1.366307
-0.606838 -1.243908 1.293287
-0.5679858 -1.226905 1.134974
-0.1774943 -1.197862 1.170633
-0.6710205 -1.256784 0.9243446
-0.6368233 -1.27824 0.879853
-0.2488974 -1.219386 0.9564634
-0.5175729 -1.25866 1.550645
-0.6588678 -1.245425 1.521487
0.1681659 -1.235733 1.566348
-0.5614927 -1.233809 1.486054
-0.2746122 -1.243355 1.135935
-0.05587548 -1.197536 0.9604704
-0.2261845 -1.228909 0.9448374
-0.3308897 -1.307788 0.8892083
-0.5319792 -1.34103 1.529805
-1.080946 -4.614589 1.297491
-0.7192478 -1.234149 1.295833
-0.6638393 -1.282387 0.8664939
-0.2587981 -1.219852 1.347821
-0.8624315 -1.244444 0.7985851
-0.2155624 -1.20827 1.226575
-0.3582109 -1.239199 0.9042401
-0.2380298 -1.225672 0.9073338
-0.1916382 -1.233817 0.9141482
-0.4092011 -1.252177 0.8266683
-0.6172309 -1.270719 1.260675
0.0417137 -1.194005 1.411968
-0.3921931 -1.228673 1.278677
-0.2476514 -1.283849 1.233969
-0.314388 -1.240717 1.156585
-0.2819156 -1.197439 1.15065
-0.5709533 -1.204995 1.094903
0.001347229 -1.199347 1.546339
-0.6060889 -1.210323 1.279369
-0.4316929 -1.186099 1.207206
-0.1816763 -1.19999 1.26533
-0.8334275 -1.240925 0.9671183
-0.8919104 -1.218091 0.7477547
-0.2792621 -1.35634 1.260475
-0.4702358 -1.225249 1.418605
-0.7106836 -1.216966 1.294556
-0.429378 -1.220019 1.308474
-0.1623422 -1.194829 1.339635
-1.126147 -1.253059 0.9191596
-0.3291423 -1.209901 1.194346
-0.2724323 -1.1999 1.163253
-1.050605 -1.228633 0.8496926
-0.3597384 -1.187704 0.9791544
-0.09345844 -1.200231 0.9591727
-0.1069787 -1.221771 0.9287116
-0.8284497 -1.318587 0.7215221
-0.2951002 -1.656032 1.433756
-0.2694417 -1.170207 1.35827
-0.2580143 -1.185594 1.344792
-0.6514544 -1.205922 1.08017
-0.2352581 -1.203424 1.22781
-0.1764334 -1.217231 1.139167
-0.9008553 -1.258346 0.785091
-0.2892731 -1.213383 1.025282
-0.2378994 -1.216027 0.9103652
-0.1449632 -1.376541 1.621009
-0.4586741 -1.204657 1.220032
-0.8067572 -1.358228 0.6536809
-0.353685 -1.205607 0.9153745
-0.3608645 -1.222089 0.8491631
-0.1923327 -1.238846 0.913071
-0.480721 -1.241912 0.7479813
0.01727343 -1.206159 0.9794546
-0.5729924 -1.22749 1.281833
0.04200192 -1.182624 1.004256
-0.3550706 -1.217189 1.241052
-0.102514 -1.216921 1.03945
0.04329301 -1.257995 1.422426
-0.3780795 -1.180006 1.183657
-0.6872767 -1.240473 1.117682
0.03488448 -1.236752 1.102909
-0.6133204 -1.224671 1.281883
-0.01923409 -1.241046 0.9832367
-0.5915703 -1.242304 1.090561
-0.1233505 -1.348328 1.3288
0.01849334 -1.204991 1.060875
-0.1666884 -1.258955 1.530614
-0.4448465 -1.224406 1.498178
-0.2049138 -1.242849 1.414494
-0.4307288 -1.29798 1.366862
-0.6087803 -1.246947 1.293739
-0.5695286 -1.229369 1.135036
-0.1782983 -1.200731 1.170623
-0.673649 -1.260454 0.9236155
-0.6368233 -1.27824 0.879853
-0.2509746 -1.225385 0.9549882
-0.5198141 -1.262912 1.552119
-0.6613668 -1.249227 1.522773
0.1687101 -1.241101 1.568114
-0.5639362 -1.237995 1.487292
-0.2760876 -1.247696 1.13572
-0.05652543 -1.201659 0.9594826
-0.2275734 -1.233385 0.9437785
-0.3328369 -1.312958 0.8878378
-0.533887 -1.344887 1.531032
-1.085057 -4.633536 1.298336
-0.7223176 -1.238396 1.296383
-0.6667851 -1.286812 0.8653943
-0.2603894 -1.224946 1.348548
-0.8671496 -1.249933 0.7967858
-0.2175064 -1.215777 1.226696
-0.360862 -1.245861 0.9024553
-0.2402056 -1.233293 0.9051885
-0.1932849 -1.240461 0.9123598
-0.4122536 -1.259125 0.8243527
-0.621535 -1.278033 1.261123
0.04171778 -1.201669 1.413383
-0.3954403 -1.236733 1.279221
-0.2476514 -1.283849 1.233969
-0.3171755 -1.249184 1.156176
-0.2844706 -1.205584 1.150182
-0.575046 -1.211932 1.094266
0.001223117 -1.208974 1.549343
-0.6137823 -1.223802 1.280256
-0.1832547 -1.20699 1.265682
-0.8359932 -1.243772 0.9668249
-0.2818839 -1.366808 1.260904
-0.4751721 -1.236584 1.420863
-0.7175623 -1.227268 1.295508
-0.4337466 -1.23075 1.309518
-0.1638444 -1.201829 1.340481
-1.126147 -1.253059 0.9191596
-0.3347791 -1.230386 1.194044
-0.2750217 -1.208816 1.162887
-1.050605 -1.228633 0.8496926
-0.3661233 -1.208081 0.9745796
-0.09459627 -1.212477 0.9562039
-0.10827 -1.233413 0.9256303
-0.8404284 -1.335896 0.7145111
-0.2981197 -1.672136 1.436203
-0.2694417 -1.170207 1.35827
-0.2580143 -1.185594 1.344792
-0.6514544 -1.205922 1.08017
-0.2352581 -1.203424 1.22781
-0.1764334 -1.217231 1.139167
-0.9008553 -1.258346 0.785091
-0.2892731 -1.213383 1.025282
-0.2378994 -1.216027 0.9103652
-0.1449632 -1.376541 1.621009
-0.4586741 -1.204657 1.220032
-0.8067572 -1.358228 0.6536809
-0.353685 -1.205607 0.9153745
-0.3608645 -1.222089 0.8491631
-0.1923327 -1.238846 0.913071
-0.480721 -1.241912 0.7479813
0.01727343 -1.206159 0.9794546
-0.5729924 -1.22749 1.281833
0.04200192 -1.182624 1.004256
-0.5600695 -1.224916 1.343856
-0.600905 -1.224414 1.29406
-0.5159915 -1.193603 1.275457
-0.712765 -1.231608 1.18206
-0.2104323 -1.223594 1.373463
-0.2225635 -1.223501 1.35053
-0.5327967 -1.225447 1.1472
-0.1621425 -1.228793 1.326048
-0.8087679 -1.230297 0.9755556
-0.2388522 -1.203346 1.22613
-0.6391917 -1.250603 1.009398
-0.2192799 -1.189211 1.224416
-0.2057473 -1.2127 1.095429
0.02826194 -1.215476 1.104817
-0.5709068 -1.158186 0.7590954
-0.808816 -1.263506 0.5527858
-0.0309711 -1.225937 0.9476675
-0.2297886 -1.196834 0.9505221
-0.3506265 -1.201914 1.241779
-0.1052055 -1.237379 1.034467
-0.684504 -1.235704 1.117116
0.03423563 -1.236736 1.101997
-0.6097087 -1.217925 1.281308
-0.01906803 -1.204357 0.9882109
-0.5846933 -1.229726 1.092432
0.01981762 -0.9866259 1.094514
-0.1731446 -1.295599 1.542598
-0.2041601 -1.236108 1.413903
-0.6090621 -1.2466 1.294976
-0.5732837 -1.235594 1.133806
-0.6726823 -1.255811 0.9267538
-0.6368233 -1.27824 0.879853
-0.2534828 -1.236069 0.9535664
-0.5220188 -1.266682 1.553391
-0.6634372 -1.252066 1.523733
0.1690275 -1.246098 1.569752
-0.5660032 -1.241182 1.488231
-0.2774806 -1.251224 1.135523
-0.05730094 -1.205547 0.9585
-0.2287978 -1.236697 0.942986
-0.3342052 -1.316037 0.887057
-0.5363361 -1.349345 1.532334
-1.087189 -4.643807 1.298898
-0.7238446 -1.240154 1.296684
-0.3202565 -1.217458 1.005776
-0.6680096 -1.288226 0.8651813
-0.2616199 -1.228011 1.348998
-0.8693792 -1.252238 0.7961463
-0.2188106 -1.219625 1.226776
-0.3620506 -1.247945 0.9020044
-0.2414983 -1.236671 0.904294
-0.19434 -1.24337 0.9116313
-0.4135189 -1.261192 0.823792
-0.6233057 -1.280555 1.261341
-0.3972488 -1.240482 1.279502
-0.2490922 -1.288332 1.234087
-0.3187986 -1.253184 1.156029
-0.2855926 -1.20784 1.150142
-0.5765653 -1.213957 1.094195
0.0008990467 -1.215532 1.551379
-0.616842 -1.228713 1.280605
-0.1850306 -1.216271 1.266112
-0.2835441 -1.37245 1.261161
-0.4782178 -1.243217 1.422159
-0.7209886 -1.232222 1.29597
-0.4366216 -1.237522 1.310193
-0.1648138 -1.203134 1.340664
-1.12541 -1.25219 0.9197964
-0.336091 -1.232735 1.194116
-0.2767879 -1.214292 1.162745
-1.058669 -1.237289 0.8471215
-0.3690293 -1.216255 0.972926
-0.09550621 -1.219991 0.9545518
-0.1092553 -1.239453 0.9242191
-0.3001282 -1.681918 1.437712
-0.2725289 -1.184802 1.360573
-0.2612715 -1.203047 1.347291
-0.6552745 -1.21205 1.079651
-0.237196 -1.211958 1.228093
-0.1776606 -1.219813 1.139126
-0.9113191 -1.272286 0.7801844
-0.2914644 -1.220923 1.024208
-0.2395133 -1.221198 0.9092023
-0.1461498 -1.3877 1.624783
-0.4659367 -1.224498 1.220495
-1.027504 -1.739445 0.4761329
-0.353685 -1.205607 0.9153745
-0.3608645 -1.222089 0.8491631
-0.1923327 -1.238846 0.913071
-0.480721 -1.241912 0.7479813
0.01727343 -1.206159 0.9794546
-0.5729924 -1.22749 1.281833
0.04200192 -1.182624 1.004256
-0.5600695 -1.224916 1.343856
-0.600905 -1.224414 1.29406
-0.5159915 -1.193603 1.275457
-0.712765 -1.231608 1.18206
-0.2104323 -1.223594 1.373463
-0.2225635 -1.223501 1.35053
-0.5327967 -1.225447 1.1472
-1.11658 -1.258323 0.8501497
-0.1621425 -1.228793 1.326048
-0.8087679 -1.230297 0.9755556
-0.2388522 -1.203346 1.22613
-0.6391917 -1.250603 1.009398
-0.2192799 -1.189211 1.224416
-0.2057473 -1.2127 1.095429
0.02826194 -1.215476 1.104817
-0.5709068 -1.158186 0.7590954
-0.808816 -1.263506 0.5527858
-0.0309711 -1.225937 0.9476675
-0.2297886 -1.196834 0.9505221
-0.6015382 -1.223193 1.258433
-0.2237045 -1.20526 1.384478
-0.2232961 -1.234096 1.104783
-0.4222462 -1.221266 0.8945882
-0.6385803 -1.225409 0.6594502
-0.1215686 -1.234456 0.9686469
-0.1146125 -1.22347 0.9277028
-0.4178791 -1.275245 1.162231
-0.3249986 -1.236413 0.9987213
-0.1046276 -1.20057 1.114662
-0.4158685 -1.240663 0.8800138
-0.7170403 -1.235724 0.5105342
-0.8542293 -1.347116 1.184733
-0.3580377 -1.220547 1.242567
-0.05368267 -1.245114 1.048488
-0.6938104 -1.248462 1.118524
0.03315064 -1.243469 1.102324
-0.6084151 -1.213678 1.28106
-0.01956046 -1.187586 0.9895121
-0.5868527 -1.231936 1.092175
-0.1734046 -1.291649 1.541934
-0.2088557 -1.257313 1.416628
-0.609875 -1.246698 1.293754
-0.6726823 -1.255811 0.9267538
-0.2557144 -1.240029 0.9513378
-0.5144377 -1.248582 1.549623
-0.6566777 -1.239419 1.52157
0.1658071 -1.232856 1.566801
-0.5566993 -1.22111 1.483961
-0.2800602 -1.256453 1.136403
-0.2299533 -1.23572 0.9449678
-0.3250746 -1.275641 0.8998722
-0.7282546 -1.245104 1.29748
-0.3202565 -1.217458 1.005776
-0.672463 -1.293707 0.8638232
-0.2638766 -1.232996 1.349899
-0.8784137 -1.261734 0.7927503
-0.2211716 -1.225706 1.227102
-0.3652462 -1.253866 0.9005585
-0.2442062 -1.24331 0.902553
-0.1965484 -1.24903 0.9102369
-0.4171799 -1.267593 0.8217775
-0.6281607 -1.287312 1.262104
-0.4008849 -1.247472 1.2803
-0.2517289 -1.295612 1.234525
-0.3220331 -1.260567 1.155937
-0.2884808 -1.214389 1.150028
-0.5814023 -1.220668 1.093832
0.0001406521 -1.22237 1.553961
-0.62356 -1.238733 1.281718
-0.1873298 -1.224141 1.26681
-0.9376491 -1.268888 0.7272003
-0.2865445 -1.38141 1.261894
-0.4835907 -1.25372 1.424749
-0.729169 -1.243164 1.297427
-0.4418853 -1.248787 1.311693
-0.167458 -1.219793 1.343091
-1.136014 -1.26142 0.9180483
-0.3406573 -1.245484 1.194263
-1.070497 -1.248316 0.8440388
-0.3742099 -1.229201 0.9702533
-0.09721132 -1.230701 0.9520602
-0.1111134 -1.25008 0.9214987
-0.3034224 -1.695974 1.440345
-0.2774042 -1.205942 1.36429
-0.265006 -1.217465 1.349679
-0.6641784 -1.225378 1.078511
-0.2404768 -1.22492 1.228684
-0.1802683 -1.234211 1.138449
-0.924898 -1.28817 0.774622
-0.2955974 -1.234322 1.022131
-0.2426138 -1.230685 0.9066779
-0.1479659 -1.402206 1.63032
-1.277409 -2.168686 0.2766951
-0.3592182 -1.221701 0.9111323
-0.36427 -1.226564 0.8477564
-0.1952994 -1.25713 0.9082612
-0.4853054 -1.248467 0.7453848
0.01840146 -1.225692 0.9753017
-0.5819271 -1.244124 1.283656
0.04301304 -1.198753 1.001108
-0.5600695 -1.224916 1.343856
-0.600905 -1.224414 1.29406
-0.5159915 -1.193603 1.275457
-0.712765 -1.231608 1.18206
-0.2104323 -1.223594 1.373463
-0.2225635 -1.223501 1.35053
-0.5327967 -1.225447 1.1472
-1.11658 -1.258323 0.8501497
-0.1621425 -1.228793 1.326048
-0.8087679 -1.230297 0.9755556
-0.2388522 -1.203346 1.22613
-0.6391917 -1.250603 1.009398
-0.2192799 -1.189211 1.224416
-0.2057473 -1.2127 1.095429
0.02826194 -1.215476 1.104817
-0.5709068 -1.158186 0.7590954
-0.808816 -1.263506 0.5527858
-0.0309711 -1.225937 0.9476675
-0.2297886 -1.196834 0.9505221
-0.6015382 -1.223193 1.258433
-0.2237045 -1.20526 1.384478
-0.2232961 -1.234096 1.104783
-0.4222462 -1.221266 0.8945882
-0.6385803 -1.225409 0.6594502
-0.1215686 -1.234456 0.9686469
-0.1146125 -1.22347 0.9277028
-0.4178791 -1.275245 1.162231
-0.3249986 -1.236413 0.9987213
-0.1046276 -1.20057 1.114662
-0.4158685 -1.240663 0.8800138
-0.7170403 -1.235724 0.5105342
-0.8542293 -1.347116 1.184733
-0.5898739 -1.223755 1.320388
-0.2292348 -1.221795 1.433849
-0.6038093 -1.244998 1.129694
-0.1997779 -1.262248 1.369895
-0.8371795 -1.246745 0.9084367
-0.7561432 -1.246142 0.9542823
-0.4488053 -1.233337 1.136192
-0.9446405 -1.281475 0.7825313
-0.3786443 -1.228504 0.9689209
-0.3667218 -1.233978 0.9067275
-0.5597237 -1.236749 0.619095
-0.6680097 -1.251461 0.4727743
-0.4408292 -1.231922 0.6293679
-0.6226135 -1.222945 1.280323
-0.2703822 -1.281637 1.3637
-0.8339131 -1.221638 0.9696409
-0.2586465 -1.2335 1.333309
-0.5871135 -1.222408 1.088663
-0.2090564 -1.206096 1.248286
-0.482133 -1.354212 1.09839
-0.3659031 -1.241909 1.242118
-0.05368267 -1.245114 1.048488
-0.6974627 -1.250484 1.118384
0.03240307 -1.248289 1.101114
-0.612665 -1.218874 1.281937
-0.6786937 -1.26341 0.9235167
-0.2587157 -1.250893 0.9494092
-0.3287247 -1.283973 0.8976778
-0.3202565 -1.217458 1.005776
-0.8925406 -1.278848 0.7870528
-0.2236069 -1.232134 1.227422
-0.3689262 -1.261116 0.8986668
-0.2470181 -1.250342 0.9006646
-0.1989623 -1.255728 0.908496
-0.4214089 -1.275368 0.8192037
-0.6334516 -1.294663 1.262843
-0.4045595 -1.254361 1.281054
-0.2543428 -1.302487 1.234914
-0.3252522 -1.267648 1.155812
-0.2915245 -1.221322 1.149825
-0.5866362 -1.22792 1.093332
-0.0007367581 -1.227739 1.556011
-0.6293939 -1.246831 1.282639
-0.1895359 -1.230797 1.267364
-0.9376491 -1.268888 0.7272003
-0.2893992 -1.389159 1.262486
-0.4881268 -1.261678 1.426757
-0.7362874 -1.252077 1.298623
-0.4462649 -1.257083 1.312818
-1.150101 -1.273963 0.915186
-0.3444515 -1.25461 1.194353
-1.085124 -1.262108 0.8397712
-0.3785602 -1.238757 0.9682011
-0.09892602 -1.238503 0.9501269
-0.1129525 -1.258417 0.9192308
-0.3062817 -1.706226 1.442288
-0.2814181 -1.221187 1.367002
-0.2680763 -1.226895 1.35128
-0.6714385 -1.235303 1.077637
-0.2432818 -1.233584 1.229066
-0.1826136 -1.24376 1.137948
-0.9361879 -1.300595 0.7701618
-0.2990861 -1.243671 1.020602
-0.2455723 -1.239148 0.9042681
-0.1496841 -1.411093 1.633833
-1.292 -2.190006 0.267503
-0.3637545 -1.233108 0.9079958
-0.3696187 -1.241806 0.8426546
-0.1979221 -1.269066 0.9049695
-0.48831 -1.25002 0.744655
0.01836056 -1.23736 0.9726433
-0.5814384 -1.236984 1.283239
0.04306081 -1.20906 0.9989277
-0.5685982 -1.241667 1.346845
-0.6046759 -1.227314 1.294539
-0.5255345 -1.21514 1.277827
-0.7189072 -1.238425 1.182265
-0.2129046 -1.232636 1.375241
-0.2250098 -1.227189 1.351148
-0.5399215 -1.239035 1.146914
-1.11658 -1.258323 0.8501497
-0.8192373 -1.24311 0.9732346
-0.2416423 -1.211315 1.226461
-0.2223239 -1.212744 1.225602
-0.2082088 -1.211849 1.09525
0.02875274 -1.228339 1.103652
-0.5900025 -1.199578 0.7413535
-0.03134362 -1.239081 0.9444215
-0.2329581 -1.212885 0.946718
-0.6015382 -1.223193 1.258433
-0.2237045 -1.20526 1.384478
-0.2232961 -1.234096 1.104783
-0.4222462 -1.221266 0.8945882
-0.6385803 -1.225409 0.6594502
-0.1215686 -1.234456 0.9686469
-0.1146125 -1.22347 0.9277028
-0.4178791 -1.275245 1.162231
-0.3249986 -1.236413 0.9987213
-0.1046276 -1.20057 1.114662
-0.4158685 -1.240663 0.8800138
-0.7170403 -1.235724 0.5105342
-0.8542293 -1.347116 1.184733
-0.5898739 -1.223755 1.320388
-0.2292348 -1.221795 1.433849
-0.6038093 -1.244998 1.129694
-0.1997779 -1.262248 1.369895
-0.8371795 -1.246745 0.9084367
-0.7561432 -1.246142 0.9542823
-0.4488053 -1.233337 1.136192
-0.9446405 -1.281475 0.7825313
-1.135548 -1.265918 0.6314026
-0.3786443 -1.228504 0.9689209
-0.3667218 -1.233978 0.9067275
-0.5597237 -1.236749 0.619095
-0.6680097 -1.251461 0.4727743
-0.4408292 -1.231922 0.6293679
-0.6226135 -1.222945 1.280323
-0.2703822 -1.281637 1.3637
-0.8339131 -1.221638 0.9696409
-0.2586465 -1.2335 1.333309
-0.5871135 -1.222408 1.088663
-0.2090564 -1.206096 1.248286
-0.482133 -1.354212 1.09839
-0.3690712 -1.177455 1.358085
-0.7888454 -1.251109 1.075602
-0.2985126 -1.198691 1.332025
-0.3106416 -1.230102 1.279153
-0.3510131 -1.221695 1.21632
-0.2420013 -1.223755 1.299644
-0.1799947 -1.24369 1.291311
-0.4614739 -1.256382 1.00172
-0.2982953 -1.247181 1.020484
-0.3850455 -1.245959 0.9355711
-0.41212 -1.22194 0.8388788
-0.5034646 -1.213277 0.5690021
-0.3154612 -1.23758 0.9120722
-0.1934655 -1.24235 0.9881775
-0.05368267 -1.245114 1.048488
-0.7014434 -1.256652 1.11768
0.03148849 -1.253399 1.101573
-0.2601125 -1.242838 0.9525172
-0.8959405 -1.283301 0.7844582
-0.2150877 -1.335541 1.257232
-0.2254123 -1.236139 1.228686
-0.3763542 -1.285607 0.8904721
-0.2512857 -1.27611 0.892417
-0.1656496 -1.249731 1.531998
-0.63605 -1.29809 1.263453
-0.4066446 -1.25822 1.281649
-0.2559752 -1.306966 1.235288
-0.3271408 -1.271748 1.155903
-0.2931951 -1.224854 1.149904
-0.9069179 -1.260242 0.6937256
-0.5891769 -1.231185 1.093378
-0.001201928 -1.232712 1.557885
-0.631933 -1.249962 1.283297
-0.191175 -1.237162 1.267948
-0.9376491 -1.268888 0.7272003
-0.2909941 -1.393031 1.262999
-0.4906815 -1.266086 1.428085
-0.7392071 -1.255367 1.299425
-0.4487285 -1.261612 1.313685
-0.3466966 -1.259863 1.194684
-1.088906 -1.265222 0.8394583
-0.3809263 -1.243523 0.96756
-0.1000725 -1.243833 0.9491642
-0.1141677 -1.262819 0.9184079
-0.3081503 -1.713232 1.443836
-0.2843735 -1.233868 1.369442
-0.2701102 -1.233567 1.352635
-0.6744397 -1.23895 1.077799
-0.2451403 -1.239715 1.229637
-0.1841817 -1.250483 1.137956
-0.9387134 -1.3026 0.7702122
-0.3012068 -1.249124 1.020153
-0.2474566 -1.244456 0.9032716
-0.1508694 -1.419702 1.63726
-1.295557 -2.194268 0.2667859
-0.3662173 -1.238494 0.9070727
-0.3710209 -1.237894 0.844988
-0.1996463 -1.276133 0.9035848
-0.4899396 -1.250674 0.7450392
0.01834263 -1.246241 0.9711744
-0.5852593 -1.243515 1.284256
0.04313813 -1.217181 0.9977521
-0.571912 -1.247225 1.348056
-0.6089001 -1.23465 1.29574
-0.5293043 -1.222532 1.278905
-0.7229921 -1.244051 1.182763
-0.2145483 -1.237883 1.376415
-0.2269278 -1.239773 1.353519
-0.5435332 -1.245718 1.147161
-1.125687 -1.267709 0.8481888
-0.8179699 -1.238876 0.9746252
-0.2435488 -1.218234 1.227076
-0.2241008 -1.219261 1.226182
-0.2099465 -1.218043 1.095099
0.02931155 -1.239254 1.103178
-0.5976172 -1.215253 0.7354451
-0.03156716 -1.249308 0.9425715
-0.2363334 -1.23925 0.9419517
-0.6045644 -1.227435 1.259077
-0.2255062 -1.217423 1.387243
-0.2251947 -1.246239 1.104454
-0.4276896 -1.240091 0.890411
-0.6422294 -1.230491 0.6578667
-0.1166289 -1.223521 0.9279993
-0.4215038 -1.285999 1.162583
-0.3278915 -1.247234 0.9974921
-0.1055148 -1.210015 1.114466
-0.4193841 -1.250073 0.8780844
-0.7211789 -1.24117 0.5082395
-0.5898739 -1.223755 1.320388
-0.2292348 -1.221795 1.433849
-0.6038093 -1.244998 1.129694
-0.1997779 -1.262248 1.369895
-0.8371795 -1.246745 0.9084367
-0.7561432 -1.246142 0.9542823
-0.4488053 -1.233337 1.136192
-0.9446405 -1.281475 0.7825313
-1.135548 -1.265918 0.6314026
-0.3786443 -1.228504 0.9689209
-0.3667218 -1.233978 0.9067275
-0.5597237 -1.236749 0.619095
-0.6680097 -1.251461 0.4727743
-0.4408292 -1.231922 0.6293679
-0.6226135 -1.222945 1.280323
-0.2703822 -1.281637 1.3637
-0.8339131 -1.221638 0.9696409
-0.2586465 -1.2335 1.333309
-0.5871135 -1.222408 1.088663
-0.2090564 -1.206096 1.248286
-0.482133 -1.354212 1.09839
-0.3690712 -1.177455 1.358085
-0.7888454 -1.251109 1.075602
-0.2985126 -1.198691 1.332025
-0.3106416 -1.230102 1.279153
-0.3510131 -1.221695 1.21632
-0.2420013 -1.223755 1.299644
-0.1799947 -1.24369 1.291311
-0.4614739 -1.256382 1.00172
-0.2982953 -1.247181 1.020484
-0.3850455 -1.245959 0.9355711
-0.41212 -1.22194 0.8388788
-0.5034646 -1.213277 0.5690021
-0.3154612 -1.23758 0.9120722
-0.1934655 -1.24235 0.9881775
-0.6747573 -1.191032 1.246161
-0.3332922 -1.235065 1.243052
-0.4503525 -1.230247 1.13543
-0.4324695 -1.224179 1.066388
-0.3285102 -1.207931 0.9807259
-0.2399007 -1.28645 1.033345
-0.717126 -1.216585 0.5940303
-0.4740769 -1.258361 0.7819206
-0.437051 -1.228365 0.7062812
-0.2484542 -1.24539 0.9025833
-0.05499817 -1.249586 1.048761
0.03705023 -1.295197 1.097631
-0.2607931 -1.250187 0.9511235
-0.2150877 -1.335541 1.257232
-0.2253622 -1.234544 1.22768
-0.5712021 -1.248742 0.8237804
-0.248523 -1.247577 0.902188
-0.1656496 -1.249731 1.531998
-0.4035352 -1.245029 1.280942
-0.2498561 -1.260038 1.232162
-0.3267675 -1.266765 1.156884
-0.2950528 -1.224638 1.150672
-0.9069179 -1.260242 0.6937256
-0.001363605 -1.235284 1.558933
-0.632288 -1.249703 1.283665
-0.1918101 -1.238748 1.26825
-0.8513107 -1.257661 0.9655508
-0.9361431 -1.266223 0.7288908
-0.2916577 -1.394192 1.263324
-0.4911511 -1.26596 1.42842
-0.7391117 -1.254279 1.299758
-0.44914 -1.261202 1.313985
-0.3471936 -1.259536 1.194991
-0.2884266 -1.244383 1.164723
-1.08608 -1.261445 0.8413097
-0.3813688 -1.242795 0.9680368
-0.100705 -1.24422 0.9492874
-0.1148027 -1.261829 0.9189066
-0.3086361 -1.713376 1.444224
-0.2707134 -1.233758 1.352983
-0.6737429 -1.236401 1.078547
-0.2457052 -1.239247 1.229942
-0.1848128 -1.250278 1.138276
-0.9360477 -1.298037 0.772563
-0.3016784 -1.247885 1.020715
-0.248025 -1.243201 0.9039751
-0.1513653 -1.420166 1.637754
-1.291446 -2.186003 0.2715268
-0.3666324 -1.23715 0.9079142
-0.3710209 -1.237894 0.844988
-0.2003466 -1.275929 0.9040807
-0.4903373 -1.249792 0.7459804
0.01777185 -1.247162 0.9713481
-0.5856573 -1.243167 1.284675
0.04254764 -1.217882 0.9979675
-0.5711494 -1.241756 1.347924
-0.6098878 -1.235906 1.296377
-0.530437 -1.224416 1.279576
-0.7219036 -1.240951 1.18327
-0.2151582 -1.237601 1.376734
-0.2276062 -1.241965 1.354291
-0.5440345 -1.245594 1.147687
-1.12378 -1.265163 0.8497557
-0.8163995 -1.235485 0.9759137
-0.2444887 -1.224823 1.227877
-0.2249623 -1.227359 1.227058
-0.2106655 -1.220885 1.095357
0.02920498 -1.242272 1.103394
-0.5979772 -1.214689 0.7364118
-0.03193437 -1.251951 0.9424879
-0.2363334 -1.23925 0.9419517
-0.6045073 -1.22603 1.259397
-0.2261646 -1.221165 1.38843
-0.2259131 -1.249657 1.104778
-0.4286602 -1.241803 0.8906364
-0.6434786 -1.232274 0.6578981
-0.4224529 -1.287996 1.1631
-0.3287751 -1.249328 0.9977471
-0.1057533 -1.214716 1.114734
-0.4202001 -1.251005 0.8784999
-0.7204447 -1.238588 0.5108291
-0.5928183 -1.231261 1.322121
-0.2298334 -1.22807 1.435895
-0.6031054 -1.241511 1.130229
-0.202004 -1.227819 1.362551
-0.834387 -1.241205 0.9103841
-0.7524189 -1.237651 0.9564252
-0.4501178 -1.237001 1.136685
-0.9351628 -1.266289 0.7883134
-1.135548 -1.265918 0.6314026
-0.3801487 -1.234868 0.9685181
-0.3678017 -1.237126 0.9066966
-0.5594509 -1.233822 0.6215016
-0.6764577 -1.271413 0.4615396
-0.6206058 -1.21624 1.279772
-0.271203 -1.287879 1.365313
-0.8341239 -1.221501 0.9703791
-0.2594195 -1.239322 1.334721
-0.5882954 -1.224492 1.089125
-0.2088889 -1.23157 1.251516
-0.4940537 -1.410213 1.097291
-0.3690712 -1.177455 1.358085
-0.7888454 -1.251109 1.075602
-0.2985126 -1.198691 1.332025
-0.3106416 -1.230102 1.279153
-0.3510131 -1.221695 1.21632
-0.2420013 -1.223755 1.299644
-0.1799947 -1.24369 1.291311
-0.4614739 -1.256382 1.00172
-0.2982953 -1.247181 1.020484
-0.3850455 -1.245959 0.9355711
-0.41212 -1.22194 0.8388788
-0.5034646 -1.213277 0.5690021
-0.3154612 -1.23758 0.9120722
-0.1934655 -1.24235 0.9881775
-0.6747573 -1.191032 1.246161
-0.3332922 -1.235065 1.243052
-0.4503525 -1.230247 1.13543
-0.4324695 -1.224179 1.066388
-0.3285102 -1.207931 0.9807259
-0.2399007 -1.28645 1.033345
-0.717126 -1.216585 0.5940303
-0.4740769 -1.258361 0.7819206
-0.437051 -1.228365 0.7062812
-0.2484542 -1.24539 0.9025833
-0.4136766 -1.221741 1.34282
-0.8320327 -1.234455 0.8415136
-0.4608049 -1.22424 1.072121
-0.7443621 -1.417278 0.7800769
-0.3331242 -1.255432 1.107037
-0.529206 -1.26844 0.8831618
-0.5536354 -1.270273 0.814707
-0.4845601 -1.247106 0.8723997
-0.195973 -1.238288 0.9869587
-0.4939988 -1.286706 0.5718667
-0.5007928 -1.21943 1.112622
-0.6100207 -1.247968 0.5584465
-0.4143953 -1.309309 0.5937704
-0.8580399 -1.313091 1.119354
-0.724922 -1.477784 1.188972
-0.05499817 -1.249586 1.048761
-0.2620523 -1.246165 0.9523919
-0.2150877 -1.335541 1.257232
-0.5712021 -1.248742 0.8237804
-0.1656496 -1.249731 1.531998
-0.2950528 -1.224638 1.150672
-0.9069179 -1.260242 0.6937256
-0.6358745 -1.25465 1.285605
-0.1921808 -1.253845 1.270843
-0.8513107 -1.257661 0.9655508
-0.9420298 -1.273845 0.7260776
-0.4924003 -1.268358 1.429271
-0.7410703 -1.256792 1.300381
-0.4503741 -1.263764 1.314559
-0.3482385 -1.262268 1.195223
-0.2884266 -1.244383 1.164723
-1.087641 -1.262503 0.8414181
-0.3826066 -1.245623 0.967632
-0.1011518 -1.24725 0.9486892
-0.115295 -1.264174 0.9184266
-0.3094176 -1.716898 1.445128
-0.271565 -1.236773 1.353705
-0.6755199 -1.238677 1.078642
-0.2464843 -1.241953 1.230265
-0.1854611 -1.253223 1.138316
-0.9383572 -1.300271 0.7721352
-0.302686 -1.250687 1.020471
-0.2489917 -1.246699 0.9031915
-0.151742 -1.42319 1.63916
-1.293222 -2.187762 0.2714233
-0.3678521 -1.239805 0.9074544
-0.3725235 -1.241866 0.8439376
-0.2011399 -1.279249 0.9034114
-0.4920509 -1.252872 0.744986
0.01773845 -1.250616 0.9707616
-0.5874006 -1.24597 1.285311
0.04259482 -1.221172 0.9974689
-0.5711494 -1.241756 1.347924
-0.6125731 -1.240936 1.29734
-0.5323389 -1.228155 1.280292
-0.7242761 -1.244214 1.183689
-0.21585 -1.241799 1.377789
-0.2283718 -1.246678 1.355346
-0.5457286 -1.248505 1.147935
-1.124645 -1.265195 0.8502545
-0.8181528 -1.237086 0.9760093
-0.2454777 -1.231656 1.228475
-0.2258667 -1.235991 1.227745
-0.2114413 -1.225072 1.095234
0.02941518 -1.246443 1.103227
-0.6000462 -1.217764 0.7354198
-0.03202835 -1.256216 0.9416823
-0.6062606 -1.228672 1.259979
-0.2268856 -1.225175 1.389533
-0.2267414 -1.253993 1.104747
-0.4303588 -1.245891 0.88986
-0.6459567 -1.236019 0.6564675
-0.4240048 -1.292126 1.163388
-0.3300528 -1.253511 0.9973372
-0.106021 -1.219434 1.114673
-0.4217978 -1.254744 0.8777738
-0.7226893 -1.241204 0.509629
-0.5950115 -1.235403 1.323092
-0.2305234 -1.233009 1.437422
-0.6054923 -1.245958 1.130443
-0.2025618 -1.233414 1.363858
-0.8370789 -1.244359 0.9100534
-0.7555121 -1.242146 0.9559657
-0.4518971 -1.241605 1.136865
-0.9393467 -1.271347 0.7870967
-1.140861 -1.271196 0.6294632
-0.3815283 -1.238225 0.9681336
-0.3699468 -1.247264 0.9046525
-0.5622336 -1.239586 0.6189502
-0.6733726 -1.260898 0.4684284
-0.6229994 -1.220531 1.280612
-0.2721171 -1.29316 1.366538
-0.836982 -1.22492 0.9701666
-0.2602863 -1.243906 1.335694
-0.5904894 -1.228426 1.089176
-0.4960991 -1.415923 1.09734
-0.371969 -1.197954 1.363088
-0.7877086 -1.246804 1.075994
-0.2995723 -1.204397 1.333229
-0.3116069 -1.230992 1.279297
-0.352421 -1.227654 1.216912
-0.2426435 -1.23342 1.30132
-0.1804009 -1.249695 1.292255
-0.4632992 -1.2609 1.001328
-0.3864018 -1.24872 0.9351689
-0.5061939 -1.22014 0.5655407
-0.3167885 -1.243578 0.9109436
-0.1941045 -1.248015 0.987465
-0.6747573 -1.191032 1.246161
-0.3332922 -1.235065 1.243052
-0.4503525 -1.230247 1.13543
-0.4324695 -1.224179 1.066388
-0.3285102 -1.207931 0.9807259
-0.2399007 -1.28645 1.033345
-0.717126 -1.216585 0.5940303
-0.4740769 -1.258361 0.7819206
-0.437051 -1.228365 0.7062812
-0.2484542 -1.24539 0.9025833
-0.4136766 -1.221741 1.34282
-0.8320327 -1.234455 0.8415136
-0.4608049 -1.22424 1.072121
-0.7443621 -1.417278 0.7800769
-0.3331242 -1.255432 1.107037
-0.529206 -1.26844 0.8831618
-0.5536354 -1.270273 0.814707
-0.4845601 -1.247106 0.8723997
-0.195973 -1.238288 0.9869587
-0.4939988 -1.286706 0.5718667
-0.7494759 -1.294086 0.1779024
-0.5007928 -1.21943 1.112622
-0.6100207 -1.247968 0.5584465
-0.8595294 -1.247259 0.2521594
-0.4143953 -1.309309 0.5937704
-0.8580399 -1.313091 1.119354
-0.724922 -1.477784 1.188972
-0.6596001 -1.221083 1.289829
-0.4876553 -1.209514 1.367287
-0.4761599 -1.179927 1.20038
-0.4413714 -1.211996 1.220979
-0.3583636 -1.248667 1.277458
-0.3763904 -1.28851 1.249325
-0.715152 -1.270564 0.7292608
-0.2965496 -1.210361 1.195751
-0.6402549 -1.20063 0.6688905
-0.2068588 -1.227603 0.915482
-0.8882054 -1.259488 1.020095
-0.5438939 -1.270467 1.29135
-0.4979202 -1.345703 1.354822
-0.4039255 -1.22456 1.277797
-0.4674127 -1.292635 1.218656
-0.3454972 -1.186496 1.191667
-0.4415799 -1.170178 0.6551557
-0.3895712 -1.299528 1.067468
-0.05518921 -1.249647 1.048127
-0.2614349 -1.245713 0.9507167
-0.5712021 -1.248742 0.8237804
-0.1643889 -1.260526 1.534557
-0.2950528 -1.224638 1.150672
-0.9053673 -1.258968 0.6918645
-0.6379703 -1.260784 1.28538
-0.1931802 -1.244646 1.26997
-0.8513107 -1.257661 0.9655508
-0.9564422 -1.299051 0.7133642
-0.448577 -1.257054 1.313732
-0.3515186 -1.281046 1.196641
-0.2884266 -1.244383 1.164723
-1.100547 -1.279673 0.8366802
-0.3878825 -1.277231 0.9612277
-0.2719018 -1.238775 1.354212
-0.6761303 -1.239637 1.078865
-0.2467692 -1.24361 1.230519
-0.5905491 -1.256758 1.135185
-0.1857015 -1.255526 1.138376
-0.939227 -1.3013 0.7722045
-0.3030418 -1.251916 1.020497
-0.2495362 -1.250028 0.9024858
-0.15176 -1.426108 1.64043
-0.4774183 -1.240931 1.218405
-1.294995 -2.190583 0.2708822
-0.1505084 -1.241724 1.416964
-0.368605 -1.243043 0.9067566
-0.3735456 -1.246383 0.8426419
-0.2013992 -1.282696 0.9026394
-0.4933907 -1.256805 0.7435818
0.01824 -1.254385 0.9700515
-0.5889928 -1.249911 1.285844
0.04313512 -1.224594 0.9968857
-0.573055 -1.246912 1.348873
-0.6144673 -1.245545 1.297989
-0.5338883 -1.232665 1.280846
-0.726652 -1.248841 1.183881
-0.2160441 -1.245991 1.378623
-0.2286292 -1.251265 1.356162
-0.5473343 -1.253044 1.147941
-1.129442 -1.270796 0.8489051
-0.8203409 -1.240666 0.975543
-0.2459197 -1.238025 1.228859
-0.2261377 -1.240368 1.228007
-0.2116845 -1.229479 1.094948
0.03016119 -1.250853 1.102928
-0.6019921 -1.222301 0.7337083
-0.03160583 -1.260446 0.9407911
-0.6083006 -1.233743 1.260493
-0.2271127 -1.229019 1.390314
-0.2270226 -1.258272 1.104494
-0.4315352 -1.250505 0.8887383
-0.64827 -1.24112 0.6541949
-0.4250481 -1.296655 1.163409
-0.3307751 -1.258002 0.9966623
-0.1058112 -1.223788 1.114421
-0.4229095 -1.259233 0.8766423
-0.7251185 -1.245796 0.5070374
-0.5962002 -1.238227 1.323475
-0.2307458 -1.23704 1.438395
-0.6077577 -1.25183 1.130335
-0.2026615 -1.238188 1.364712
-0.8413821 -1.25163 0.9085252
-0.7584464 -1.247686 0.9550107
-0.4531092 -1.24625 1.136755
-0.9450555 -1.279933 0.7844227
-1.146551 -1.277899 0.6265205
-0.3821572 -1.240359 0.967687
-0.3703482 -1.247535 0.9044936
-0.5647903 -1.246884 0.6154011
-0.6783301 -1.272477 0.461351
-0.6252357 -1.225984 1.281272
-0.2725047 -1.297619 1.3673
-0.8398599 -1.229565 0.9694257
-0.2606388 -1.247959 1.336285
-0.5922908 -1.233009 1.088892
-0.4975572 -1.421702 1.097081
-0.37322 -1.206785 1.364995
-0.7834431 -1.237298 1.076255
-0.3001103 -1.209574 1.334077
-0.3122523 -1.237418 1.280054
-0.3532718 -1.233343 1.217231
-0.2428705 -1.239715 1.302173
-0.1803182 -1.255398 1.292931
-0.463506 -1.259583 1.001304
-0.3874735 -1.254392 0.9340218
-0.5113562 -1.24076 0.5544695
-0.3175341 -1.249915 0.9095185
-0.1941755 -1.253555 0.9865579
-0.6814358 -1.20769 1.248288
-0.3338395 -1.234897 1.24276
-0.4499363 -1.223324 1.134998
-0.4338022 -1.230163 1.065931
-0.3293073 -1.214843 0.9796322
-0.7221099 -1.227454 0.5886016
-0.4762435 -1.267936 0.7788684
-0.4387084 -1.236066 0.7031727
-0.2488432 -1.250388 0.9013725
-0.4136766 -1.221741 1.34282
-0.8320327 -1.234455 0.8415136
-0.4608049 -1.22424 1.072121
-0.7443621 -1.417278 0.7800769
-0.3331242 -1.255432 1.107037
-0.529206 -1.26844 0.8831618
-0.5536354 -1.270273 0.814707
-0.4845601 -1.247106 0.8723997
-0.195973 -1.238288 0.9869587
-0.4939988 -1.286706 0.5718667
-0.7494759 -1.294086 0.1779024
-0.5007928 -1.21943 1.112622
-0.6100207 -1.247968 0.5584465
-0.8595294 -1.247259 0.2521594
-0.4143953 -1.309309 0.5937704
-0.8580399 -1.313091 1.119354
-0.724922 -1.477784 1.188972
-0.6596001 -1.221083 1.289829
-0.4876553 -1.209514 1.367287
-0.4761599 -1.179927 1.20038
-0.4413714 -1.211996 1.220979
-0.3583636 -1.248667 1.277458
-0.3763904 -1.28851 1.249325
-0.715152 -1.270564 0.7292608
-0.2965496 -1.210361 1.195751
-0.6402549 -1.20063 0.6688905
-0.6690837 -1.265246 0.5820783
-0.7988476 -1.261005 0.356275
-0.7221494 -1.275949 0.3908134
-0.2068588 -1.227603 0.915482
-0.7940342 -1.268944 0.03784856
-0.8882054 -1.259488 1.020095
-0.5438939 -1.270467 1.29135
-0.4979202 -1.345703 1.354822
-0.4039255 -1.22456 1.277797
-0.4674127 -1.292635 1.218656
-0.3454972 -1.186496 1.191667
-0.4415799 -1.170178 0.6551557
-0.3895712 -1.299528 1.067468
-0.7946903 -1.287927 0.1932509
-0.6442057 -1.221403 1.178956
-0.6691201 -1.214299 0.959762
-0.4716827 -1.221479 1.186149
-0.5144722 -1.225186 0.9905203
-0.610905 -1.226866 0.8397107
-0.6053593 -1.256891 0.8473925
-0.2904028 -1.231244 1.237531
-0.5729307 -1.242327 0.826526
-0.3187645 -1.222702 1.076606
-0.4191877 -1.232947 0.8349048
-0.2305881 -1.241465 1.106071
-0.5592217 -1.208007 0.6323477
-0.2402738 -1.300199 1.033023
-0.3747813 -1.219343 0.8478232
-0.4381635 -1.205633 0.7199251
-0.338183 -1.125023 1.121557
-0.05417784 -1.256416 1.047509
-0.2626305 -1.254511 0.9511767
-0.571345 -1.245449 0.8265893
-0.1683953 -1.217478 1.520046
-0.2958021 -1.223583 1.15083
-0.9053673 -1.258968 0.6918645
-0.1931163 -1.245359 1.26934
-0.8529086 -1.261599 0.9636225
-0.9408581 -1.272161 0.7253656
-0.3515061 -1.273675 1.197845
-0.2893217 -1.247121 1.165546
-0.3862138 -1.263484 0.9642892
-0.2768705 -1.303881 1.367301
-0.5905491 -1.256758 1.135185
-0.1873317 -1.247932 1.140564
-0.9281259 -1.285483 0.7754522
-0.2500582 -1.252728 0.9021987
-0.4774183 -1.240931 1.218405
-0.1505084 -1.241724 1.416964
-0.3692496 -1.244648 0.9064866
-0.3740863 -1.247363 0.8424875
-0.2017985 -1.284417 0.9023215
-0.4939684 -1.257542 0.7434785
0.0181796 -1.256001 0.9698014
-0.5898596 -1.251406 1.286161
0.04319134 -1.226528 0.9965999
-0.5738181 -1.248045 1.349218
-0.6151928 -1.246464 1.29826
-0.5345418 -1.233545 1.281086
-0.7272891 -1.24939 1.184069
-0.216436 -1.247223 1.378971
-0.6812687 -1.248018 1.076953
-0.2290388 -1.252512 1.356488
-0.3339896 -1.192639 1.238831
-0.5479355 -1.253714 1.148086
-1.12953 -1.270524 0.8492714
-0.1655879 -1.256225 1.330787
-0.8208898 -1.240977 0.9756998
-0.2464166 -1.240352 1.229101
-0.2121096 -1.230425 1.094989
-0.5795698 -1.211382 0.7518826
0.0299582 -1.251877 1.10294
-0.6024278 -1.222362 0.7339005
-0.03190416 -1.261406 0.9406865
-0.6089793 -1.234552 1.260706
-0.2275212 -1.230357 1.390702
-0.2274623 -1.2594 1.104548
-0.4320592 -1.250975 0.888781
-0.6487314 -1.241254 0.6543733
-0.4255815 -1.297349 1.163543
-0.3312765 -1.258654 0.9966972
-0.1061332 -1.224899 1.114464
-0.4234291 -1.259692 0.8766857
-0.7252697 -1.245279 0.5076483
-0.5970559 -1.239618 1.323848
-0.2311515 -1.238483 1.438895
-0.608492 -1.252814 1.130483
-0.2030286 -1.239878 1.365166
-0.8412837 -1.250818 0.90892
-0.7590441 -1.248148 0.9551347
-0.4537235 -1.247208 1.13689
-0.9454603 -1.280052 0.7846591
-1.146511 -1.277533 0.6270447
-0.3827705 -1.241603 0.9676445
-0.3711439 -1.250429 0.9040362
-0.5654384 -1.247589 0.6153306
-0.6772556 -1.268734 0.4640194
-0.6259918 -1.226985 1.281541
-0.2729642 -1.298992 1.36769
-0.8403277 -1.229766 0.9695995
-0.2610931 -1.249414 1.336655
-0.5929282 -1.23371 1.089015
-0.4981782 -1.422709 1.097226
-0.373805 -1.208061 1.365385
-0.784708 -1.239116 1.07636
-0.3006205 -1.210946 1.334446
-0.3127842 -1.238946 1.280383
-0.3538477 -1.234674 1.217462
-0.2433061 -1.241388 1.302551
-0.180664 -1.257089 1.293292
-0.4629177 -1.253609 1.002112
-0.3879813 -1.254561 0.9341648
-0.5120303 -1.241621 0.5543264
-0.318097 -1.251237 0.9094303
-0.1946062 -1.254848 0.9865369
-0.682246 -1.208748 1.24854
-0.3347309 -1.248071 1.24457
-0.434416 -1.231111 1.066026
-0.329893 -1.216949 0.9795178
-0.7230118 -1.22867 0.5883477
-0.4761333 -1.264128 0.7802535
-0.4393482 -1.23701 0.7030709
-0.2492303 -1.253762 0.9008911
-0.8328261 -1.235332 0.8415216
-0.4624992 -1.233779 1.071991
-0.7449604 -1.417808 0.7802036
-0.3336754 -1.258454 1.107142
-0.5302548 -1.271469 0.8827415
-0.5501095 -1.250556 0.8200081
-0.4852833 -1.248548 0.8722659
-0.4926641 -1.274018 0.578196
-0.7494759 -1.294086 0.1779024
-0.6094243 -1.243847 0.560858
-0.8595294 -1.247259 0.2521594
-0.4125317 -1.276298 0.6087631
-0.8593814 -1.315166 1.11953
-0.6900446 -1.361386 1.18079
-0.6596001 -1.221083 1.289829
-0.4876553 -1.209514 1.367287
-0.4761599 -1.179927 1.20038
-0.4413714 -1.211996 1.220979
-0.3583636 -1.248667 1.277458
-0.3763904 -1.28851 1.249325
-0.715152 -1.270564 0.7292608
-0.2965496 -1.210361 1.195751
-0.6402549 -1.20063 0.6688905
-0.6690837 -1.265246 0.5820783
-0.7988476 -1.261005 0.356275
-0.7221494 -1.275949 0.3908134
-0.2068588 -1.227603 0.915482
-0.7940342 -1.268944 0.03784856
-0.8882054 -1.259488 1.020095
-0.5438939 -1.270467 1.29135
-0.4979202 -1.345703 1.354822
-0.4039255 -1.22456 1.277797
-0.4674127 -1.292635 1.218656
-0.3454972 -1.186496 1.191667
-0.4415799 -1.170178 0.6551557
-0.3895712 -1.299528 1.067468
-0.9732862 -1.283134 0.1699956
-0.7946903 -1.287927 0.1932509
-0.8041397 -1.270848 1.059401
-0.6442057 -1.221403 1.178956
-0.6691201 -1.214299 0.959762
-0.8238819 -1.256022 0.7523413
-0.4716827 -1.221479 1.186149
-0.5144722 -1.225186 0.9905203
-0.610905 -1.226866 0.8397107
-0.6053593 -1.256891 0.8473925
-0.2904028 -1.231244 1.237531
-0.5729307 -1.242327 0.826526
-0.3187645 -1.222702 1.076606
-0.4191877 -1.232947 0.8349048
-0.2305881 -1.241465 1.106071
-0.5592217 -1.208007 0.6323477
-0.2402738 -1.300199 1.033023
-0.3747813 -1.219343 0.8478232
-0.4381635 -1.205633 0.7199251
-0.920216 -1.228788 0.7962349
-0.338183 -1.125023 1.121557
-0.4361581 -1.342231 0.8782459
-0.7007388 -1.227457 1.177957
-0.6123159 -1.238531 1.261441
-0.5079923 -1.22905 1.335318
-0.7829905 -1.252849 0.9474298
-0.766182 -1.205941 0.7125943
-0.5243949 -1.167541 1.048221
-0.7754642 -1.255855 0.6178018
-0.3835086 -1.22867 0.9679163
-0.4899361 -1.198302 0.7580174
-0.5131822 -1.261033 0.5431013
-0.4298913 -1.257777 0.5894497
-0.6834542 -1.185753 0.8832646
-0.6294379 -1.239326 0.7847884
-0.2036916 -1.213345 0.9905679
-0.104578 -1.29405 1.036064
-0.05571354 -1.255568 1.048475
-0.2636966 -1.2446 0.9528161
-0.5696305 -1.241536 0.8268901
-0.1661756 -1.231715 1.52352
-0.2959875 -1.224816 1.149666
-0.1936531 -1.258818 1.272871
-0.8529086 -1.261599 0.9636225
-0.9428273 -1.276852 0.7222623
-0.2890723 -1.241527 1.164955
-0.5905491 -1.256758 1.135185
-0.2506005 -1.246147 0.9032611
-0.4774183 -1.240931 1.218405
-0.1505084 -1.241724 1.416964
0.02520612 -1.289273 0.9647123
-0.5900825 -1.252411 1.286092
-0.574832 -1.250129 1.349686
-0.6163225 -1.248629 1.29865
-0.5356112 -1.235963 1.281457
-0.7284417 -1.251156 1.184254
-0.2167926 -1.250008 1.379575
-0.6812687 -1.248018 1.076953
-0.2294348 -1.25544 1.357059
-0.3339896 -1.192639 1.238831
-0.5491235 -1.256396 1.148165
-1.129824 -1.270624 0.8495502
-0.1655879 -1.256225 1.330787
-0.8216725 -1.241835 0.9757548
-0.2125075 -1.232998 1.094878
-0.5795698 -1.211382 0.7518826
0.03033268 -1.255397 1.102748
-0.6032076 -1.223447 0.7336639
-0.03181874 -1.264602 0.9400662
-0.6098466 -1.236041 1.260883
-0.2279104 -1.23306 1.391267
-0.227895 -1.261795 1.104438
-0.432758 -1.252434 0.8885002
-0.6493744 -1.241905 0.6542596
-0.4263483 -1.299518 1.163587
-0.33189 -1.260577 0.9964548
-0.1063126 -1.227271 1.114348
-0.4241301 -1.26122 0.8763757
-0.7256434 -1.245285 0.5079074
-0.5980098 -1.241458 1.324117
-0.2315472 -1.240705 1.439406
-0.6092926 -1.254116 1.130474
-0.2033747 -1.242283 1.365573
-0.8420157 -1.25161 0.9088621
-0.7596784 -1.248801 0.9551027
-0.4544348 -1.248754 1.136865
-0.9458455 -1.280254 0.7847736
-1.146219 -1.276977 0.6275913
-0.3834635 -1.24346 0.9673634
-0.5662251 -1.248774 0.6149304
-0.6770476 -1.267198 0.4652397
-0.6268104 -1.228306 1.281677
-0.2734383 -1.301158 1.368042
-0.8408633 -1.230209 0.9696141
-0.2615568 -1.251487 1.336943
-0.5936808 -1.23487 1.088969
-0.4988624 -1.424147 1.097192
-0.3744268 -1.209721 1.365646
-0.7844061 -1.237838 1.076433
-0.3011544 -1.212682 1.334674
-0.313344 -1.240862 1.280564
-0.3544588 -1.236343 1.21753
-0.2437507 -1.24358 1.302805
-0.1810095 -1.259176 1.293502
-0.4633816 -1.253581 1.002122
-0.388546 -1.255099 0.9340954
-0.5128876 -1.243216 0.5537035
-0.3187041 -1.252911 0.9091248
-0.1950366 -1.256748 0.9862755
-0.6836052 -1.211424 1.248821
-0.3351172 -1.243243 1.243805
-0.4353269 -1.234317 1.065861
-0.3305348 -1.219702 0.9791588
-0.7239787 -1.230066 0.5879283
-0.4401175 -1.23867 0.7025778
-0.2498432 -1.253807 0.9008858
-0.8337296 -1.236528 0.841372
-0.4624605 -1.229162 1.07203
-0.7458326 -1.419198 0.7800145
-0.3342668 -1.26165 1.107073
-0.5313963 -1.274894 0.8821244
-0.4861739 -1.250939 0.8718128
-0.4906107 -1.256042 0.5869498
-0.7471663 -1.286688 0.1846034
-0.6078113 -1.235688 0.5652454
-0.8614124 -1.250323 0.2503195
-0.8606724 -1.317291 1.119566
-0.6920446 -1.366691 1.181115
-0.6654847 -1.240036 1.293265
-0.4897941 -1.222477 1.370504
-0.4773905 -1.185653 1.200816
-0.442508 -1.21906 1.221671
-0.3589624 -1.255783 1.27847
-0.7076125 -1.245952 0.7375015
-0.2966691 -1.219288 1.196453
-0.6425847 -1.207194 0.6663945
-0.6690837 -1.265246 0.5820783
-0.7988476 -1.261005 0.356275
-0.7221494 -1.275949 0.3908134
-0.2086065 -1.220749 0.9165313
-0.7940342 -1.268944 0.03784856
-0.8910748 -1.264727 1.019764
-0.5455528 -1.277333 1.292409
-0.4047936 -1.231202 1.278754
-0.4655707 -1.26801 1.215615
-0.3460262 -1.19465 1.192281
-0.3888303 -1.249838 1.068297
-0.9732862 -1.283134 0.1699956
-0.7946903 -1.287927 0.1932509
-0.8041397 -1.270848 1.059401
-0.6442057 -1.221403 1.178956
-0.6691201 -1.214299 0.959762
-0.8238819 -1.256022 0.7523413
-0.4716827 -1.221479 1.186149
-0.5144722 -1.225186 0.9905203
-0.610905 -1.226866 0.8397107
-0.6053593 -1.256891 0.8473925
-0.2904028 -1.231244 1.237531
-0.5729307 -1.242327 0.826526
-0.3187645 -1.222702 1.076606
-0.4191877 -1.232947 0.8349048
-0.2305881 -1.241465 1.106071
-0.5592217 -1.208007 0.6323477
-0.2402738 -1.300199 1.033023
-0.3747813 -1.219343 0.8478232
-0.4381635 -1.205633 0.7199251
-0.920216 -1.228788 0.7962349
-0.338183 -1.125023 1.121557
-0.4361581 -1.342231 0.8782459
-0.7632148 -1.278459 -0.003133312
-0.7007388 -1.227457 1.177957
-0.6123159 -1.238531 1.261441
-0.5079923 -1.22905 1.335318
-0.7829905 -1.252849 0.9474298
-0.766182 -1.205941 0.7125943
-0.5243949 -1.167541 1.048221
-0.7754642 -1.255855 0.6178018
-0.3835086 -1.22867 0.9679163
